# .PCD v0.7 - Point Cloud Data file format
VERSION 0.7
FIELDS x y z intensity
SIZE 4 4 4 4
TYPE F F F F
COUNT 1 1 1 1
WIDTH 1218
HEIGHT 1
VIEWPOINT 0 0 0 1 0 0 0
POINTS 1218
DATA ascii
-21.443411 -0.61880004 29.295486 5
-21.15626 -0.63549328 29.445402 5
-20.717352 -0.68646729 29.219963 5
-20.166811 -0.47395706 29.565685 4.4000001
-19.76729 -0.60442513 29.465652 5.5
-19.434423 -0.60827744 29.526148 4.5714288
-18.901018 -0.65751582 29.47447 4.5714288
-18.599091 -0.64479935 29.483809 5
-18.345098 -0.58416587 29.402754 6.1153846
-16.822367 -0.5180847 29.499046 4
-16.276459 -0.53098333 29.315689 6
-15.645639 -0.61042821 29.204035 6
-15.446655 -0.5882979 29.349861 6.3333335
-14.948871 -0.58469993 29.379467 6
-14.584582 -0.68867755 29.322388 5.4000001
-14.127994 -0.51264715 29.232376 7
-13.653424 -0.76948452 29.272873 4.6666665
-13.559282 -0.6987927 29.319094 6
-11.768454 -0.77284229 29.248838 5
-11.364156 -0.78597087 29.441833 5
-10.995006 -0.78854382 29.212505 5
-10.639999 -0.78390074 29.439682 5
-10.037756 -0.46631274 29.488506 1.5
-9.6989861 -0.74568433 29.371267 4.8333335
-9.3461571 -0.78004771 29.294861 4.5
-8.9424057 -0.78364486 29.406111 3.5714285
-8.564311 -0.77573806 29.468786 3.2083333
-8.1781578 -0.74151957 29.433922 4.3636365
-7.8251834 -0.75151688 29.377245 4.25
-7.4367981 -0.76702291 29.293331 3.5647779
-7.025753 -0.76399326 29.303051 2.5
-6.6181598 -0.73599243 29.317348 3.0857143
-6.1850863 -0.74192834 29.458639 3.0999999
-5.8084888 -0.74980789 29.427168 2.7
-5.3940334 -0.75684434 29.429573 2.1500001
-4.998147 -0.74743372 29.38769 2.4000001
-4.6104822 -0.75115007 29.388538 1.2564101
-4.1993866 -0.7358368 29.402758 2
-3.8577189 -0.74660921 29.408754 2.1764705
-3.4216502 -0.68458074 29.476622 2.7297857
-2.9770679 -0.65359795 29.402006 3.7554107
-2.6027386 -0.50298482 29.428219 5.2333212
-2.2826104 -0.43713987 29.341421 4.8333335
-1.9640787 -0.43773571 29.537155 8.1265001
-37.271511 -0.21019167 29.429886 7
-36.995731 -0.066650055 29.404285 5.7980213
-36.663666 -0.088403389 29.393856 4.9259262
-36.127159 -0.11624155 29.421875 4.1999998
-35.815163 -0.12290376 29.350313 4.3571429
-35.343052 -0.19035332 29.437227 4.8615384
-35.034458 -0.21749991 29.412745 4.7727275
-34.645809 -0.26383698 29.401236 3.7222223
-34.173557 -0.29400867 29.363447 4.2380953
-33.796341 -0.33071497 29.308941 4.2884617
-33.345951 -0.36722037 29.467745 4.125
-32.938663 -0.32870248 29.469341 4.7142859
-32.589085 -0.37026036 29.412537 4.1999998
-32.221252 -0.37681216 29.37623 2.5999999
-31.833374 -0.39309713 29.400183 2.5
-31.459946 -0.36519477 29.479868 3.75
-30.978018 -0.3310858 29.476215 6.5
-30.260849 -0.37739706 29.251366 4.5
-29.924122 -0.36060813 29.26367 5
-29.375589 -0.32639828 29.2605 5
-28.617807 -0.26964444 29.453583 5
-28.240799 -0.39821544 29.267689 8.0959997
-26.889339 -0.37523657 29.468298 6
-25.101934 -0.33896977 29.239162 5
-24.546421 -0.34692496 29.254576 5
-23.828131 -0.36100298 29.259319 5
-22.973867 -0.19073994 29.40202 5.1983976
-22.664713 -0.14792904 29.418484 6.4106002
-22.16213 -0.17433444 29.443319 6.6386003
-21.825254 -0.16620691 29.408371 5.9000001
-21.381601 -0.17726414 29.346127 6.0085936
-20.965302 -0.2080833 29.329062 5.9000001
-20.527128 -0.22724944 29.265778 5.75
-20.142666 -0.28240475 29.263086 5.8000002
-19.806713 -0.26812166 29.237246 6
-19.390511 -0.34970707 29.421675 7
-19.078773 -0.25128645 29.461735 7
-18.425116 -0.17374487 29.405907 7.9978542
-18.380833 -0.25922093 29.436758 6.8288002
-15.297801 -0.09915334 29.569164 6
-14.693843 -0.22439882 29.480858 6.3496666
-13.688412 -0.24830174 29.252882 6
-10.128725 -0.22374566 29.41901 5.6330404
-9.9818554 -0.33915359 29.493509 4
-6.4271798 -0.10153431 29.233204 7
-2.1034739 -0.35040021 29.370491 5
-1.9007664 -0.29294249 29.437199 5.726357
-1.4055258 -0.23500612 29.468496 5.7142859
-1.0556717 -0.17286441 29.343882 6
-0.58853984 -0.082036652 29.487238 6.5
-0.26009941 -0.011022147 29.381279 7
2.8838718 -0.00098675489 29.257603 5
3.2940798 -0.0031699538 29.362461 5
3.994421 -0.018222567 29.244968 7
-37.228237 0.17020857 29.56604 6.5
-37.010265 0.23012282 29.393549 6.4824758
-36.79768 0.2603237 29.253641 5
-27.202202 0.35238835 29.237547 8.6310005
-24.866899 0.053671658 29.573883 8.1645002
-23.201641 0.00013098121 29.303677 8.1035004
-22.947548 0.18704604 29.406054 7.3484821
-22.623482 0.18650435 29.377794 7.5109224
-22.210901 0.18666101 29.360592 7.604732
-21.81214 0.21629052 29.302872 7.6632075
-21.424519 0.2478244 29.264759 7.5601497
-21.000982 0.20273174 29.243664 7.3211131
-20.704037 0.30839565 29.237244 8.2399282
-20.256485 0.31794021 29.269674 8.1202497
-18.443123 0.20283276 29.379555 8.9601717
-18.342945 0.25982434 29.425028 9.0938063
-14.961048 0.29214492 29.490004 8.118
-14.614525 0.15970643 29.450607 7.1155415
-12.7176 0.32687563 29.488918 10.14
-11.419474 0.17685592 29.410681 10.136375
-11.166606 0.15094604 29.460863 9.4539995
-5.6529989 0.041702569 29.204172 7
-0.7892974 0.03310883 29.298393 4
-0.051261306 0.075936556 29.58408 5
0.25017273 0.086052597 29.571112 5
0.60745984 0.12344905 29.353287 4.3333335
1.3529074 0.13645878 29.425293 4.5
1.7087306 0.15600283 29.363005 3.3333333
2.1974752 0.17365882 29.447428 2.4000001
2.5638144 0.17993179 29.327847 3.2
3.0954208 0.25762427 29.363405 3
3.4273267 0.21426833 29.376156 2.9375
3.8967633 0.17024218 29.297678 5.9285712
4.0379462 0.22989911 29.412926 7.2511573
-37.251545 0.66352034 29.519131 8.0910168
-37.020966 0.64566869 29.389406 8.0004406
-36.74744 0.55080706 29.239969 7.6868339
-27.227747 0.62153429 29.330521 10.1305
-24.846617 0.60226846 29.561207 9.1645002
-22.931196 0.59182507 29.415682 9.4889545
-22.621357 0.55485249 29.35224 9.0162592
-22.210571 0.53176385 29.315157 8.752593
-21.824877 0.54087192 29.273897 8.683814
-21.460558 0.52582794 29.253977 8.4698811
-21.090929 0.46931937 29.231869 8.4564753
-20.690989 0.4409813 29.225555 8.6317501
-20.316265 0.44923663 29.216496 8.1230001
-14.598502 0.40245718 29.423569 8.1129999
-9.5540104 0.68007982 29.429955 8.1732502
3.9757795 0.60192585 29.424868 8.3442497
4.0517187 0.57972717 29.383991 7.2136555
-37.263714 0.94188637 29.526512 8.9130697
-36.997028 1.0374624 29.394112 9.3352289
-36.736004 1.0518593 29.299677 9.9285717
-22.904888 0.96221334 29.495365 11.272602
-22.731152 0.92502564 29.41678 9.6794796
-22.139097 0.81099212 29.231781 9
-21.983496 0.82052022 29.292931 9
3.9912732 0.9828431 29.263708 9.0106001
4.0677848 1.0167718 29.392015 8.8334475
-37.238888 1.4050679 29.530031 10.25
-36.989288 1.4303772 29.414146 10.597604
-36.734489 1.4290535 29.259069 11.44163
-27.187248 1.3715812 29.463726 14.13
-26.308661 1.4443002 29.320538 14.134
-25.617348 1.2907765 29.350197 13.138
3.9705365 1.455765 29.387821 10.3522
4.0450106 1.434703 29.394291 10.39851
46.952839 1.4908228 29.310392 12.353833
-37.233364 1.7872925 29.521324 11.848
-36.97316 1.8236744 29.411831 11.500677
-36.756096 1.8166313 29.240135 12.110421
3.991106 1.7980917 29.320496 11.013
4.0406122 1.8283215 29.414377 11.574645
46.955738 1.7886384 29.360203 14.1325
-37.285915 2.1026833 29.550409 13.166667
-36.982422 2.2302845 29.416843 12.302969
-36.754425 2.1946483 29.281137 12.197717
3.9798849 2.2132151 29.429937 12.355
4.0582528 2.1313202 29.391924 12.473561
45.144001 2.3661127 29.479424 14.034
45.924248 2.3542171 29.578815 14.0325
47.025032 2.1113763 29.322174 14.081625
-37.247959 2.5165615 29.511482 14
-36.976227 2.6074002 29.406519 12.678504
-36.750278 2.6002421 29.271801 12.700533
3.4967575 2.7810991 29.433382 11.1365
3.8679783 2.5470703 29.559479 11.444333
4.1102161 2.6127019 29.529675 12.724161
44.492374 2.5139127 29.521841 15.1615
45.189266 2.4271483 29.599161 15.0045
45.291981 2.4490571 29.589092 15.1595
45.727196 2.4910893 29.357227 15.1585
46.149723 2.4963453 29.281078 15.1575
46.599777 2.4537554 29.394543 15.078875
-36.985085 3.0037637 29.408367 13.153211
-36.781471 2.9323556 29.245327 12.525
2.5095606 3.074038 29.39406 13.542652
3.457432 2.9963858 29.427031 13.723766
3.8381369 2.9727745 29.35791 13.628147
4.1256528 3.0103939 29.513214 13.707531
-37.275875 3.2800925 29.590256 13.666667
-37.013206 3.4051871 29.414549 13.591266
-36.740486 3.3968024 29.239624 13.509188
2.3578501 3.5070884 29.450371 11.599501
2.5193508 3.3436322 29.391701 13.021256
3.0561757 3.4585056 29.289043 15.00625
3.5001585 3.3494606 29.312647 15.049126
3.8734086 3.383543 29.527988 15.023
4.0971341 3.2953534 29.409948 14.334375
-37.234695 3.7941155 29.510534 12.235549
-37.00441 3.7776473 29.409218 12.985738
-36.671921 3.8515658 29.303925 11.074875
-36.338593 3.9371738 29.318365 10.105
2.3753438 3.6677318 29.479069 10.6375
2.4980452 3.7074032 29.414724 13.757146
2.8131905 3.684006 29.214163 11.1345
3.2037938 3.731097 29.387383 12.001
3.6258574 3.7717056 29.442217 15.0895
-37.234135 4.2360382 29.584621 14
-37.009258 4.1534514 29.372234 13.610101
-36.54525 4.2512736 29.539745 11.55225
-36.174404 4.2782512 29.332214 12.976749
2.5343988 4.1734509 29.259274 12.12025
4.1566486 4.1793084 29.385664 11.424666
-37.046173 4.4111958 29.489841 12
-36.462574 4.5850859 29.527197 13
-36.22448 4.5831909 29.397963 13.313579
2.7579784 4.4148302 29.544182 15.109
4.2067089 4.7420044 29.381355 12.087
-36.446854 5.1248426 29.513462 12.771
-36.242851 4.9568372 29.414618 13.220001
2.3073826 4.8452044 29.596601 12.111
-36.477867 5.3484392 29.53945 13.04875
-36.212784 5.3177195 29.339359 14.044875
-35.96946 5.3908129 29.226007 13.171499
-16.894989 5.3845196 29.355373 15.14725
-16.775869 5.4702721 29.556398 15.144
4.313324 5.2910643 29.248518 12.0715
-36.45903 5.9116092 29.459991 15.1295
-36.199219 5.9424286 29.406244 15.057834
-15.497553 5.6665769 29.501629 13.563499
3.0626459 5.8799877 29.457527 13.375375
3.3709865 5.9028916 29.48613 14.36775
-36.242592 6.1372724 29.384699 13.9511
-21.407925 6.000617 29.200861 12.0705
-16.713699 6.2033787 29.400629 15.0695
2.7013023 6.1847305 29.39971 13.764916
2.8591156 6.1128292 29.492403 13.096251
3.2903137 6.0627532 29.40366 14.1075
-36.497864 6.6852818 29.384733 12.052834
-36.257584 6.7738538 29.262703 15.122
-34.956078 6.6090937 29.389374 11.0315
-16.48457 6.5409288 29.362196 15.1175
-14.693841 6.65552 29.350353 15.1595
2.7372863 6.5214167 29.431686 13.9384
-36.432301 7.1537156 29.510227 15.157
-36.390629 7.0588112 29.353159 15.1345
-17.777004 7.0966792 29.443312 15.10775
2.6406565 6.8765674 29.555443 15.1045
-36.26897 7.3807526 29.360325 15.157
-36.464485 7.7056885 29.552061 15.155833
-36.272125 7.6892853 29.346863 15.0317
93.823708 -2.8619204 29.710712 7
-19.261517 -0.8057124 29.669912 5
-18.849657 -0.83040231 29.788956 5
-18.472931 -0.81080103 29.760139 5
-18.25861 -0.89425981 29.830915 6
-11.789064 -0.84478527 29.741999 7
-11.58782 -0.81204987 29.64764 5
-10.647663 -0.89291084 29.778851 7
-10.172617 -0.83136803 29.769108 1.4166666
-9.8188515 -0.83116859 29.81492 2.75
-9.3577919 -0.82540065 29.839205 2.5256412
-8.9371214 -0.82948214 29.761997 2.2857144
-8.5308228 -0.81860095 29.726322 2.5
-8.3131466 -0.8069942 29.80228 0.33333334
-6.8228397 -0.84655142 29.833982 3.5
-6.5887012 -0.81037384 29.873823 0
-5.4818683 -0.81043893 29.840326 0
-5.0514221 -0.80909985 29.89135 0
-4.4240522 -0.80402565 29.904037 7
-3.8998952 -0.81132692 29.914227 0
-35.381416 -0.47600377 29.808546 6
-33.363853 -0.65362751 29.853874 6
-32.98838 -0.40374619 29.679054 6.5
-32.429661 -0.40838987 29.732553 4.5
-32.150669 -0.47064227 29.808992 3.8571429
-31.82324 -0.43552774 29.818537 2.75
-31.413361 -0.43341577 29.790733 3.007591
-30.995003 -0.42583022 29.8344 2.1538463
-30.607697 -0.41790581 29.810156 2.2
-30.175642 -0.43453655 29.767435 0.70833331
-29.780523 -0.43466562 29.803778 2
-29.409536 -0.45019332 29.801964 2.6710527
-29.003769 -0.45920345 29.78047 2.2530863
-28.573683 -0.48245594 29.794403 3.4629629
-28.22764 -0.47032544 29.791208 2.3846154
-27.850517 -0.47342321 29.817986 2.5
-27.438248 -0.47842303 29.826508 2.05
-26.985361 -0.47942719 29.810513 3.6190476
-26.578218 -0.48340505 29.787373 2.3571429
-26.176443 -0.48160797 29.764759 2.8
-25.795481 -0.49198756 29.819468 4.0500002
-25.407614 -0.4991312 29.783707 3.5686274
-25.07062 -0.52038878 29.738657 4
-24.613503 -0.50671911 29.835455 4.1052632
-24.196463 -0.50123364 29.824345 3.7719297
-23.869858 -0.50357741 29.756674 4.3000002
-23.382078 -0.52605993 29.778822 3.5555556
-22.971943 -0.49753651 29.778578 3.6025641
-22.68454 -0.48919582 29.832062 4.6666665
-22.214031 -0.61693984 29.858927 5.8000002
-21.791399 -0.60635495 29.810844 4.75
-21.421871 -0.53263253 29.786032 4.125
-21.02071 -0.51081908 29.753687 4.4285712
-20.645319 -0.45072922 29.692606 4.3000002
-20.129568 -0.63080037 29.720882 4.875
-19.830605 -0.47551465 29.662413 4
-19.33753 -0.67118245 29.808359 4.75
-19.025217 -0.58043373 29.761538 6
-18.649717 -0.73862267 29.762699 4.75
-18.328262 -0.61527151 29.754244 6.5
-17.230286 -0.555641 29.856003 7
-16.890276 -0.53058088 29.970314 7
-16.63287 -0.50244755 29.832844 5.5
-15.241431 -0.59595072 29.616806 6
-12.699179 -0.7754879 29.638769 7
-12.398184 -0.74693197 29.894447 7
-11.025761 -0.78338283 29.808332 5
-10.699553 -0.78785908 29.725864 5
-10.131104 -0.63505667 29.86776 5.125
-9.8805761 -0.6691609 29.77043 4.181818
-9.4540129 -0.74546552 29.861982 5.5220003
-9.0431261 -0.7722826 29.713444 4.5
-8.5890293 -0.74698347 29.78694 3.7142856
-8.2065105 -0.76652259 29.767303 3.2084999
-7.8224545 -0.78066969 29.721039 2.4537778
-7.4566379 -0.78271919 29.884495 2.4380953
-7.0095139 -0.77356035 29.863016 3.6666665
-6.6037345 -0.76755667 29.816595 3.0999999
-6.1954775 -0.74318469 29.806576 2.7232141
-5.8062515 -0.74800056 29.804384 2.6875
-5.41083 -0.74591798 29.808357 2.375
-5.0173898 -0.74922496 29.80286 3.5
-4.6608467 -0.74958128 29.820862 2.6764705
-4.2159953 -0.75413424 29.80595 2.9230769
-3.8738608 -0.75350857 29.822193 1.1818181
-3.4437783 -0.74582082 29.840315 1.75
-2.9776132 -0.67829937 29.738865 3.625
-2.5506005 -0.5143528 29.77252 4.8292727
-2.2204866 -0.42038125 29.757942 4.8888888
-1.9345645 -0.48689064 29.749218 7.057375
-37.353939 -0.048415273 29.819666 6.3574705
-37.019604 -0.076820306 29.787083 5.4048333
-36.53857 -0.11156067 29.78371 5.625
-36.163994 -0.10198003 29.787924 4.4250002
-35.830322 -0.13369966 29.821232 3.8
-35.415546 -0.18538232 29.778484 5.0390625
-35.004375 -0.22691691 29.807426 4.1999998
-34.580379 -0.27916601 29.79369 4.8076925
-34.245193 -0.28913838 29.743786 4.2727275
-33.792328 -0.32798341 29.781914 4.125
-33.43578 -0.34703064 29.822845 3.75
-32.934341 -0.34720486 29.892239 3.8888888
-32.586708 -0.36373341 29.759768 3.3777776
-32.21106 -0.36121267 29.793032 3.7647059
-31.818911 -0.38855588 29.857656 3.8333333
-31.310947 -0.36990118 29.837421 4.5
-30.925591 -0.25539765 29.750271 6
-30.519585 -0.36022827 29.674835 5
-29.789892 -0.33070821 29.901522 6.5
-29.414917 -0.36233455 29.633192 7.0432501
-28.931805 -0.35135886 29.716139 6
-28.310089 -0.35559282 29.904118 6
-27.980745 -0.28551078 29.66534 5
-27.432648 -0.33632082 29.839941 5
-27.191 -0.38119936 29.662739 5
-26.077269 -0.19994625 29.793558 8.1025
-23.224312 -0.29319414 29.954123 6.3333335
-23.00865 -0.18074298 29.864931 5.5170598
-22.565443 -0.2890811 29.875008 5.6363635
-22.188589 -0.29068002 29.843637 5.75
-21.816225 -0.32992426 29.804928 5
-21.451368 -0.30982217 29.774977 5.7142859
-21.055939 -0.34047762 29.740902 5.5999999
-20.716896 -0.33451784 29.688885 6
-20.316061 -0.35276499 29.667238 7
-19.818253 -0.37117127 29.635872 6
-18.470432 -0.15297742 29.723938 7.6703248
-18.349283 -0.25987524 29.794991 7.1740136
-16.506054 -0.081110984 29.932898 7
-10.080002 -0.24425237 29.847931 6.7039585
-9.9548893 -0.32085541 29.756199 5.75
-9.4832973 -0.036284968 29.64398 8
-4.6150198 -0.12461729 29.915968 6.0769229
-3.041399 -0.020443995 29.919811 7
-2.1376996 -0.35229954 29.771307 6.2411003
-1.8534038 -0.3126578 29.7981 5.2307692
-1.3761921 -0.22747277 29.805269 5.8729091
-1.0242537 -0.16511452 29.729338 6.1754165
-0.57688713 -0.08770179 29.78977 6
4.0521626 -0.065983854 29.699829 7
-38.106483 0.28938705 29.752932 7
-37.857437 0.2362234 29.986893 6.5
-37.372112 0.21497577 29.802193 6.5623374
-37.145679 0.19705033 29.651638 5.5277777
-36.704842 0.083448432 29.671608 7
-27.350086 0.3758018 29.980574 8.4805832
-23.323498 0.023708433 29.987755 8.1549997
-22.965864 0.20457654 29.833496 7.3932228
-21.197298 0.046129227 29.620981 6
-18.414522 0.24019289 29.793221 9.1438332
-18.338108 0.19491236 29.788227 8.6324215
-16.582611 0.33232439 29.949667 8
-14.684505 0.12413049 29.70105 7
-11.3569 0.16963363 29.655771 10.139667
-11.092259 0.13265719 29.871506 9.4788332
-9.7451286 0.20406947 29.690155 9.3999996
-9.4513845 0.23446576 29.638466 9.5472498
-7.1781778 0.21549384 29.886242 7
-4.5885286 0.20894578 29.909904 8.4172182
-4.2209058 0.21322167 29.879272 8.5307503
-3.8869598 0.23079546 29.898748 8.2808495
-3.4807386 0.30416119 29.850584 8.8089161
-3.1229541 0.26535219 29.881796 8.4268799
-0.63594723 0.0086178193 29.896215 7
-0.36970294 0.061602712 29.644096 5
1.0289818 0.37715256 29.929394 6
1.3676302 0.24224615 29.744869 5.5
2.3108656 0.37279692 29.745195 6
2.9913883 0.21434611 29.812935 3.75
3.4379311 0.2277915 29.906118 4.8333335
3.8332536 0.1673633 29.799704 6.1428571
4.0610271 0.25244856 29.784185 7.394011
-37.684891 0.70768929 29.912395 8.0088749
-37.381443 0.64575964 29.810701 7.9510536
-37.147167 0.6120165 29.647518 7.5975938
-27.314474 0.64086115 29.75498 9.9749441
-22.943747 0.5848639 29.827866 9.4922466
-22.789673 0.7311886 29.945366 10.034125
-18.311214 0.45091751 29.810291 8.1145
-16.731266 0.65526211 29.920881 9.3342505
-12.094133 0.59598279 29.816826 12.144375
-9.6603441 0.56656975 29.694304 11.392857
-9.4144735 0.50387359 29.652889 11.0945
-4.6172585 0.56613952 29.93351 11.010125
-3.0196111 0.65422785 29.955088 10.172434
4.0824747 0.59662807 29.799313 7.3125906
4.4060121 0.53853202 29.94894 7
-37.697773 0.96006984 29.985769 9.0253334
-37.361595 1.0188745 29.808514 9.1717396
-37.123409 1.0222791 29.663975 9.5148907
-27.330791 1.0651295 29.952091 12
-22.891737 0.98819023 29.807053 11.334691
-22.766117 0.97314614 29.834377 10.627481
-16.715067 0.83148998 29.921843 9.1470003
-4.5770555 1.0440789 29.949121 14.70275
-3.7343347 1.1623466 29.965223 13.542625
-3.4181535 1.1270458 29.937714 11.066125
-3.0523686 1.0591849 29.977972 11.392928
3.9988937 0.91154861 29.89315 11
4.0952282 1.0025254 29.83499 8.7254267
47.087318 1.1119977 29.609325 11
-37.612511 1.3407527 29.957523 9.75
-37.360962 1.3909448 29.826811 10.354151
-37.144215 1.4244784 29.670858 11.264323
-27.123537 1.4580716 29.853775 14.129
-25.672775 1.400089 29.942451 13.134
-22.941898 1.2477448 29.910147 11.5
3.9980559 1.4459606 29.807587 10.332875
4.0793309 1.4061084 29.7941 10.053673
47.109753 1.3927612 29.803946 12.3825
-37.632812 1.6666994 29.902832 9.5
-37.350254 1.8024278 29.835495 11.530526
-37.152237 1.8150814 29.685797 11.99459
4.0704398 1.8146032 29.813536 11.26045
47.070095 1.7851452 29.720264 12.786625
-37.601936 2.0459576 29.882263 13
-37.36351 2.210417 29.832581 12.082892
-37.148945 2.2034328 29.675867 12.068666
3.9629035 2.3385718 29.701702 13
4.0816789 2.2431874 29.79879 12.170135
45.456001 2.3500347 29.943405 14.518749
45.727371 2.3690495 29.78348 15.00325
46.16811 2.3659377 29.767189 15.00225
46.690399 2.3177371 29.956783 15.001
47.030441 2.2656274 29.870529 14.000125
-37.629272 2.6152558 29.924847 12.903
-37.343166 2.6118662 29.807739 12.421548
-37.125397 2.5827782 29.65181 12.571261
3.9928913 2.4367914 29.936661 11.0075
4.0944185 2.6252012 29.785004 12.792426
43.698212 2.5144932 29.751328 15.1635
44.751965 2.4087443 29.742805 15.0055
-37.616882 3.0131137 29.961668 13.875
-37.357208 3.0072429 29.823589 13.089114
-37.150253 2.9806671 29.657846 12.847749
1.8998604 3.1687927 29.694941 11.12
2.5313156 3.1132998 29.792236 13.708838
3.4710035 3.0118406 29.894264 14.205625
3.8773723 2.9816329 29.771099 13.722125
4.1068659 2.9906013 29.790794 13.53549
4.4604321 3.1297929 29.717379 10.0135
-38.080521 3.3191466 29.799683 10.1
-37.356239 3.4104249 29.804195 13.678936
-37.145718 3.3985736 29.658678 13.68175
2.5547235 3.3378198 29.834414 12.949345
3.3596799 3.3856058 29.852867 15.0075
3.8599539 3.3249514 29.782219 14.885187
4.119133 3.3005037 29.826588 14.443922
-37.638527 3.7732573 29.962597 13.289125
-37.395943 3.7568133 29.828192 12.906946
-37.060116 3.7529168 29.734474 11.872
-36.788139 3.8493783 29.698059 10.046
2.3540192 3.6653147 29.92416 11.1505
2.5505333 3.7084019 29.787647 13.699715
2.8277969 3.69468 29.811859 11.151
3.899435 3.6122062 29.966394 15.0085
4.0990305 3.70331 29.946571 14
-38.013222 4.3246574 29.710302 11.1
-37.74181 4.3851433 29.887779 14
-37.394066 4.1256676 29.806644 13.447576
-37.177593 4.2514939 29.698019 15.023334
-36.55162 4.2242122 29.793098 12.761118
2.7074363 4.2599525 29.717127 13.308599
4.228548 4.1481948 29.805161 11.377999
-37.450134 4.4910002 29.837557 13.5
-36.569191 4.5695357 29.792015 13.229985
-36.383728 4.6518946 29.670382 11.756875
2.3857307 4.4107723 29.659157 15.1
2.6789484 4.5478888 29.888306 13.56325
4.2786407 4.659771 29.802095 12.117167
-36.560093 4.9991388 29.77174 13.41057
-36.37236 4.813108 29.616673 12
-18.615379 5.121767 29.785206 15.115
-18.024765 4.9265928 29.995321 12.0885
-17.768606 5.0269518 29.705406 12.065
-17.33696 5.1222234 29.706051 12.1695
2.7092252 5.0076318 29.946123 12.13
4.3338013 4.9138918 29.961311 12.06525
-36.879803 5.2889915 29.896826 14
-36.623466 5.2997966 29.767992 14.166063
-18.497038 5.2409158 29.961437 15.1135
-17.987244 5.3400493 29.830492 12.158
-17.492044 5.2519879 29.805103 15.1425
4.3809757 5.282681 29.928181 12
-36.841316 5.8146715 29.843075 11.167
-36.528061 5.8945036 29.770136 13.9065
-36.361492 5.9573011 29.608681 15
3.1572361 5.9338121 29.711691 13.144
4.1406994 5.7701612 29.817799 12.1405
-36.649475 6.0757637 29.817923 14.643394
-17.490667 6.3385372 29.993797 15.05
2.7433319 6.2924242 29.765472 13.3321
2.9145308 6.0950966 29.829659 15.1115
3.3988132 6.0501823 29.806665 12.64975
-36.941551 6.699635 29.977604 12.045
-36.682411 6.651227 29.819805 12.044
-36.287102 6.7930717 29.828171 11.032
-15.097685 6.4061422 29.608994 15.05275
2.688432 6.5655804 29.734896 15.099874
2.8541234 6.5198493 29.827219 14.460667
-17.223133 6.9667454 29.707249 15.0555
2.6784973 6.9551601 29.923817 15.105
-36.805447 7.3615384 29.965443 15.1575
-36.614204 7.4521356 29.813807 15.146667
-36.887779 7.6732531 29.997904 15.1595
-36.591625 7.7023592 29.728222 15.0557
-36.744007 8.1124573 29.790653 15.116
-19.112299 9.0405359 29.722639 15.0025
-18.564117 9.6716642 29.820009 15.168
-35.500671 11.012924 29.756277 12.175
-20.096584 -0.80333024 30.155689 6
-18.879402 -0.83088315 30.260498 5
-18.508204 -0.80177802 30.362381 5
-18.306053 -0.80237019 30.181871 5
-11.22852 -0.82295144 30.221369 5.4000001
-10.88109 -0.82737654 30.174936 5.8000002
-10.647553 -0.82947463 30.109924 5.4000001
-10.157122 -0.82489634 30.236019 3.4285715
-9.8695259 -0.83261287 30.228703 2.9807692
-9.4668531 -0.83788198 30.172342 2.7222223
-8.9955473 -0.82531399 30.252436 3.151515
-8.5703812 -0.82892942 30.222504 0.13333334
-8.3295364 -0.82074231 30.386169 5
-7.7362161 -0.82186049 30.309813 2.75
-7.3945713 -0.83491528 30.203636 4.7777777
-7.0206685 -0.81298226 30.319176 1.625
-6.6601219 -0.81808305 30.271088 3.8333333
-6.2514567 -0.81635875 30.091217 7
-5.4184022 -0.80591065 30.190414 4.6666665
-5.0058098 -0.80239898 30.209219 3.5
-3.422014 -0.83939719 30.248579 4.3333335
-38.24646 -0.63511503 30.229267 7
-34.688633 -0.60486221 30.157969 5.6666665
-34.095478 -0.47942719 30.323261 6
-33.848129 -0.40161529 30.247307 6
-33.438229 -0.43344069 30.242769 6
-33.033417 -0.58814037 30.057945 5.5
-32.66785 -0.4441613 30.264212 6.3333335
-32.138626 -0.47033128 30.210855 1.8333334
-31.933554 -0.44522291 30.300442 5
-31.396524 -0.45963764 30.21339 3.5999999
-30.969772 -0.40919346 30.206736 1.25
-30.53912 -0.4158338 30.188789 2.1111112
-30.147753 -0.42934227 30.228804 2.1666667
-29.76116 -0.44269639 30.174246 2.0769231
-29.434298 -0.455773 30.200487 2.4210527
-29.007788 -0.46417066 30.196096 1.7368422
-28.59531 -0.44978589 30.189224 2.5595241
-28.178577 -0.45546013 30.233562 2.40485
-27.821669 -0.4678812 30.186733 2.3141026
-27.413486 -0.47429758 30.195639 2.4821429
-27.002563 -0.47511724 30.23621 2.1764705
-26.616793 -0.46715084 30.195686 3.9375
-26.206978 -0.48249495 30.186605 2.3888888
-25.788303 -0.47616094 30.214291 3.25
-25.423199 -0.48552093 30.164337 2.8
-25.011623 -0.50900787 30.162785 3.5882354
-24.553934 -0.51471764 30.142637 4.1428571
-24.197905 -0.51639944 30.230715 3.7727273
-23.779041 -0.50812924 30.226873 3.5625
-23.423475 -0.49751499 30.238123 3
-23.016203 -0.51118439 30.190969 3.4444444
-22.603842 -0.49692705 30.10084 3.6666667
-22.219479 -0.56771928 30.244949 4.75
-21.808832 -0.57485509 30.206934 4.2727275
-21.451376 -0.59167194 30.207926 5.1666665
-21.016056 -0.6441223 30.130035 5.5714288
-20.629902 -0.65767634 30.263697 6.1999998
-20.197693 -0.6797688 30.021414 5
-19.830507 -0.74592757 30.269711 5.5
-19.4277 -0.73940915 30.277071 5.1428571
-18.991385 -0.76847851 30.179976 5
-18.543587 -0.74533874 30.107533 5
-18.30312 -0.65381819 30.219942 5.9130435
-16.921528 -0.49286017 30.124014 6.5
-16.692133 -0.51962256 30.165838 6.8000002
-13.68045 -0.535505 30.025917 7
-11.751817 -0.71931285 30.00341 7
-11.30883 -0.77911377 30.26124 5
-10.885243 -0.76746696 30.346113 5
-10.614905 -0.63207054 30.345516 5.0392671
-10.191387 -0.63290572 30.311506 5.6693754
-9.8236256 -0.79126966 30.189266 5
-9.3898373 -0.72310746 30.262024 5.0952377
-8.9969091 -0.78834313 30.126221 4.3333335
-8.6929855 -0.7975502 30.100933 4
-8.2767591 -0.78343928 30.198193 3.9333332
-7.7834964 -0.77610511 30.106478 2.8125
-7.3911147 -0.7822212 30.152866 1.8
-7.0100427 -0.78852749 30.203318 4.5
-6.5660782 -0.78457659 30.212799 2.4545455
-6.2282782 -0.7719503 30.118603 3.2857144
-5.8440571 -0.75904715 30.220953 4.1999998
-5.4083052 -0.77315563 30.210091 3.7272727
-4.9918165 -0.76012796 30.208887 3.1964285
-4.6573472 -0.75597453 30.196384 2.5
-4.2036381 -0.75915766 30.159901 2.875
-3.8589773 -0.76586974 30.172747 1.939394
-3.3597782 -0.75624657 30.211052 2.2222223
-2.9601033 -0.6985724 30.176979 3.0540001
-2.5181 -0.48668683 30.218489 5.2511668
-2.3180628 -0.43944338 30.235628 4.6666665
-37.724236 -0.10562178 30.224312 6.625
-37.471943 -0.050134961 30.232733 6.125
-37.039318 -0.086478218 30.219984 6.0091248
-36.610695 -0.10020126 30.204334 5.1999998
-36.217705 -0.11622213 30.230093 5.0190477
-35.765522 -0.1369421 30.1492 3.3685277
-35.418507 -0.19428299 30.167446 5
-34.988045 -0.23698993 30.213249 4.318182
-34.606697 -0.28550074 30.193619 5
-34.14994 -0.29511431 30.158714 4.3333335
-33.778942 -0.31237191 30.219427 4.3499999
-33.427959 -0.32460135 30.156757 2.9285715
-32.961212 -0.31280628 30.277721 4.0090499
-32.639648 -0.34194073 30.211487 4.3383889
-32.228256 -0.36243591 30.178953 3.1666667
-31.778837 -0.36470965 30.170231 3.3076923
-31.418522 -0.38205367 30.263988 3.8
-31.109228 -0.35459986 30.276655 4.1666665
-30.663038 -0.39162946 30.237619 1.3333334
-30.224482 -0.38754106 30.127939 4.0285001
-29.65274 -0.31760353 30.1383 6
-29.070892 -0.33128357 30.172537 7.0437498
-27.705538 -0.35713229 30.145298 6
-27.426699 -0.33505464 30.078465 5
-26.555416 -0.36212203 30.104883 7
-24.722143 -0.36971259 30.263264 5
-23.766409 -0.38259354 30.300314 5.6666665
-22.950298 -0.14435974 30.171272 5.1479778
-22.382658 -0.36919922 30.131468 6
-18.286234 -0.22401363 30.15696 7.6428432
-16.816538 -0.15997778 30.131678 8.1446667
-16.750835 -0.13630903 30.091236 7.25
-16.102032 -0.062934726 30.042723 7
-15.04661 -0.097877502 30.105083 5
-11.001269 -0.25813046 30.285351 8.1172504
-10.509398 -0.27436209 30.344166 7.3399062
-10.268554 -0.14818214 30.2558 7.7088227
-9.6506262 -0.11168427 30.206915 7
-9.399065 -0.19776291 30.255676 6.75
-4.6172853 -0.12647578 30.139322 6.4109373
-3.6885529 -0.27792242 30.133284 6.3333335
-3.3126936 -0.041191056 30.078012 7
-3.0195549 -0.14141195 30.168564 7.3691669
-2.1158655 -0.36518103 30.169125 5
-1.809238 -0.29665351 30.139391 5.3333335
-1.4176484 -0.23816174 30.222345 5.7765226
-0.95554382 -0.14311615 30.104328 6.2644377
-0.59697515 -0.076040775 30.232061 6.1999998
-0.31026328 -0.035311028 30.204937 5
0.2623421 -0.020837655 30.223583 5.5
4.0545111 -0.02286111 30.131777 7
-37.742798 0.21739809 30.246147 6.505033
-37.548264 0.23752888 30.078146 6.5208335
-36.636486 0.096444242 30.206802 7
-22.950674 0.20943798 30.142935 7.4450049
-22.755547 0.23083013 30.110268 7
-18.746899 0.0087398812 30.387466 7
-18.290812 0.21213475 30.195976 8.9413414
-17.052382 0.19120944 30.014038 6
-16.688435 0.29991382 30.113712 8.2027502
-14.589188 0.16140869 30.146229 7.6750002
-11.159887 0.12556879 30.214355 9.1490002
-9.7153492 0.23721942 30.252977 8.3365002
-9.3748817 0.10890331 30.334751 8.3797684
-4.6065483 0.21944782 30.184164 8.3144693
-4.2203588 0.25262979 30.120739 8.136095
-3.7869997 0.25843057 30.08219 8.0659733
-3.3759637 0.26155964 30.057226 8.1418734
-3.0030785 0.28951597 30.06835 8.0189285
-0.48316693 0.13462406 30.24869 4
-0.20409882 0.048256934 30.250313 6.3333335
0.12046885 0.091759108 30.161362 5.1999998
0.69656479 0.14958459 30.319637 5
1.0509998 0.20454568 30.34292 4.3333335
1.4185709 0.2170714 30.351868 4.6666665
1.7913009 0.20046501 30.312506 4.6666665
2.154043 0.21398029 30.251423 4.8000002
2.9627934 0.20197475 30.094614 4.6666665
3.4426558 0.18884297 30.060854 4.3333335
3.9996052 0.36252886 30.320034 10
4.0760503 0.20701003 30.200981 7.4799905
-37.747372 0.63750064 30.244673 7.9457755
-37.550304 0.64879942 30.075209 7.985312
-27.4375 0.41153347 30.352081 8.6265001
-23.293369 0.60015571 30.063206 9.1549997
-22.951973 0.60046852 30.149334 9.4412479
-22.760851 0.63989669 30.232988 9.0454283
-19.072075 0.5567826 30.045696 7
-18.196871 0.51278406 30.382618 7
-16.825455 0.77247083 30.162994 8.1204996
-16.704376 0.60379279 30.184978 9.4135303
-9.6755161 0.51417738 30.340261 10.523125
-9.3906145 0.58952504 30.263903 9.9197617
-6.8730927 0.69963133 30.323202 8.1785002
-4.5855603 0.57439542 30.139635 10.05825
-4.2906938 0.43891785 30.366451 10.036438
-3.0026925 0.61652845 30.177475 9.473278
0.7906158 0.42786521 30.200493 6
1.1970222 0.42822167 30.097902 6
3.9500394 0.55720699 30.383209 8.0289993
4.0989537 0.59510177 30.177851 7.5369534
4.7409873 0.78180742 30.326403 10.057
47.159027 0.47184145 30.204189 10.027
-37.743244 1.0339066 30.242754 9.0864582
-37.529774 1.0280812 30.071114 9.3143892
-37.172424 1.0128479 30.067305 9.333334
-27.382366 1.0972433 30.182379 12.127
-22.946466 0.99968469 30.16057 11.226027
-22.764811 0.95586824 30.245163 10.313715
-16.664104 0.94742393 30.128416 9.6350002
-9.4214201 0.81349403 30.316545 12
-4.5824547 0.97943395 30.168552 12.357018
-4.3587523 1.1526928 30.145147 10.0105
-3.7844174 1.1620284 30.178772 12.615833
-3.3169661 1.1697352 30.149057 11.289062
-3.0444496 1.0880468 30.187971 11.468524
4.1078138 0.98453772 30.198431 8.9416771
47.175346 0.96151072 30.161385 11.0135
47.216106 0.94052958 30.076218 12.1165
-37.730511 1.3930557 30.245831 10.046768
-37.519337 1.4293376 30.115332 11.087657
-37.120823 1.5195796 30.041138 11
-26.217863 1.4158027 30.347164 13.131
-25.765291 1.4274468 30.171696 13.133
-22.975227 1.2522383 30.195248 11.528319
-22.718374 1.2150161 30.293776 8.1099997
-3.81534 1.2534732 30.073786 12.052333
-3.1113968 1.2916409 30.162491 10.0105
4.0862107 1.3943622 30.200296 10.197886
4.5294704 1.3547541 30.377741 10.1085
47.137665 1.4445163 30.24753 12.009
-38.089813 1.8925276 30.210814 8.0799999
-37.722652 1.7868414 30.267002 11.318711
-37.529812 1.7793124 30.103704 11.55234
-37.152111 1.8365409 30.108345 12
4.0888443 1.8045567 30.190208 11.189376
5.0312986 1.8762512 30.381678 11.11
47.074844 1.8477204 30.212139 13.289875
-38.039772 2.2855916 30.067503 11
-37.713619 2.2056284 30.255241 12.163192
-37.530033 2.1988671 30.116991 11.935104
4.0893364 2.2191415 30.182592 12.121758
5.0271497 2.3201976 30.344229 11.421834
46.482979 2.3626118 30.12072 14.0315
47.050758 2.2783322 30.227774 14.028999
-37.706711 2.6049521 30.246246 12.870786
-37.533077 2.6143885 30.106703 12.621786
-37.110424 2.5672548 30.009123 14.333333
3.9411716 2.7448072 30.170948 10.152
4.1163898 2.6183572 30.20351 12.775607
4.4899006 2.5636587 30.397734 13
5.0792389 2.7163672 30.373587 12.58375
46.307343 2.4100239 30.24353 14.0305
-38.014671 3.0491352 30.20854 11
-37.731007 2.9890094 30.255726 13.101342
-37.550148 3.0173531 30.118763 12.959248
2.5797954 3.1166663 30.191601 13.866082
3.0886555 3.0870757 30.336615 11.8511
3.4437523 3.0143018 30.228901 13.295438
3.8620453 3.0245607 30.182089 13.481588
4.1135111 2.9497781 30.198122 13.320912
-37.711254 3.3885036 30.252666 13.719319
-37.535419 3.42735 30.123062 13.914472
2.2807305 3.4290981 30.10478 11.803333
2.5761397 3.3648789 30.182337 12.933104
3.0103951 3.3907301 30.278419 13.118979
3.4192002 3.3739655 30.253189 13.234097
3.7790177 3.3630815 30.239702 12.810764
4.1217728 3.3283436 30.115629 14.193941
-37.707058 3.7629249 30.208517 13.380439
-37.547153 3.7935729 30.161522 13.580547
-36.976074 3.9720373 30.134247 10.0445
-36.607559 3.9984279 30.147831 12.126
2.3655491 3.6342304 30.225323 11.1665
2.5738146 3.6938679 30.233704 13.625777
3.0052307 3.6220188 30.321041 12.816
3.4521763 3.6885059 30.284622 13.575583
3.827301 3.6625335 30.251987 13.07205
4.3058968 3.6965606 30.379894 11.0525
-37.708698 4.1666417 30.211546 13.321114
-37.506599 4.1801128 30.138901 14.126401
-36.946636 4.180367 30.251177 12.121384
-36.712536 4.2950916 30.069613 13.055667
2.824646 4.2401137 30.11787 12.1725
4.3311481 4.2464104 30.147554 11.7505
-37.719646 4.5624876 30.239386 15.087
-37.270428 4.5407128 30.346258 12.709
-36.946621 4.6061878 30.204973 13.157534
-36.731354 4.5661306 30.076702 13.768357
4.2787027 4.6059914 30.095007 12.12375
-36.955669 4.9504848 30.280848 13.361751
-36.751656 4.9136386 30.051651 12.051999
-17.814774 5.152884 30.095406 12.1155
3.2407751 5.0292425 30.359381 12.1115
4.2290306 4.9882669 30.046799 12.06
-37.209572 5.2971616 30.284042 14
-36.980244 5.337069 30.187716 14.191072
-19.032562 5.2746401 30.088697 12.0935
-18.596502 5.4932485 30.167744 15.141
-17.94685 5.3963833 30.124573 15.142
-17.509762 5.4323287 30.345779 15.078
-37.014961 5.7618904 30.306671 13.55725
-36.69088 5.8927512 30.176949 13.627251
-15.272068 5.7684212 30.04335 15.051624
-15.135071 5.7720852 30.275305 15.050166
-37.321701 6.2861814 30.322863 11.0645
-37.066158 6.162065 30.293045 14.691144
-36.734447 6.163703 30.044497 15.167
-14.80772 6.3521123 30.379545 12.071
3.0492306 6.2994461 30.335932 12.137
3.4074793 6.241888 30.112686 13.6175
-15.840873 6.7175107 30.364828 15.0555
-15.440775 6.6832981 30.28606 15.057501
-14.732466 6.7853723 30.192854 15.1095
-13.907343 6.6290474 30.013397 15.157
3.1387138 6.5551996 30.366718 13.1395
-37.211578 6.8885579 30.223404 13.063834
-36.953735 6.8262987 30.048002 12.027
-19.184465 7.0535727 30.177662 15.105
-17.329386 7.0831504 30.197851 15.089833
-13.698441 7.0645199 30.181818 15.1765
-37.107998 7.2671647 30.303757 14.1135
-37.007019 7.7253976 30.197998 14.751701
-14.308375 7.8508973 30.220316 15.049667
-36.849525 8.1816616 30.017836 15.1545
-35.72781 10.876388 30.024422 12.0835
93.725662 -2.5083966 30.446236 7
93.856155 -2.375778 30.549202 7
-18.486284 -0.82463026 30.54969 5
-18.310627 -0.84933317 30.631042 6
-12.43013 -0.84614295 30.758881 4
-11.295399 -0.83854568 30.616371 2.5
-11.035991 -0.86151218 30.575848 1.5
-10.58527 -0.83284062 30.655519 3.6666667
-10.136223 -0.83767641 30.583248 3.15625
-9.7707796 -0.83420676 30.576262 2.6403511
-9.4511499 -0.83632034 30.592012 3.8888888
-9.0728416 -0.83894742 30.578457 4
-8.6833115 -0.82662696 30.627111 3.0666666
-8.2607069 -0.8423925 30.718714 4.7222223
-7.8421535 -0.8247925 30.619448 4.3246751
-7.4072342 -0.83523542 30.600246 2.6875
-7.0022593 -0.81345236 30.584202 5.25
-6.6301036 -0.82423264 30.550552 5.1428571
-6.2684836 -0.82490826 30.519609 5.2857141
-5.7279849 -0.83592546 30.5755 5.8000002
-5.3731756 -0.81246746 30.50494 0.06666667
-5.0655065 -0.83184367 30.571892 6.5
-4.6176677 -0.86314535 30.717695 4
-4.298624 -0.80919582 30.698145 4.75
-3.8577511 -0.84083509 30.70039 6.5
-3.3970284 -0.83477783 30.679523 3.5
-3.0090528 -0.80994439 30.436707 5
-37.571903 -0.42523241 30.60467 7
-34.306324 -0.42450076 30.623386 6
-33.714409 -0.41049397 30.715078 6
-32.845219 -0.40690407 30.779669 4
-32.591515 -0.60085964 30.50358 5.5
-32.097549 -0.41734833 30.646917 5
-31.671873 -0.47601295 30.604837 5.3333335
-31.367981 -0.41162816 30.623703 3.0120714
-31.020975 -0.47591999 30.644762 2.8333333
-30.677769 -0.43164819 30.609653 3.5333333
-30.225286 -0.42872986 30.577166 2.2380953
-29.767239 -0.44563642 30.596355 1.3125
-29.369295 -0.43960673 30.558903 1.9342105
-28.998833 -0.44223303 30.573673 1.5406296
-28.591444 -0.45245329 30.57682 2
-28.224628 -0.45326012 30.589027 2.5789473
-27.801472 -0.46037537 30.602221 2.8461537
-27.410038 -0.45573601 30.572056 2.6666667
-26.991755 -0.47096363 30.597652 3.4000001
-26.546961 -0.47166619 30.577192 3.7222223
-26.159851 -0.47462782 30.598772 3.1764705
-25.751511 -0.47728056 30.565466 4.1176472
-25.391254 -0.48853511 30.58917 3.1730769
-25.016165 -0.53572738 30.586866 4.6666665
-24.658575 -0.51887327 30.566031 4.2857141
-24.204615 -0.52549732 30.58383 5
-23.863602 -0.51216459 30.581787 4.3684211
-23.450851 -0.51938832 30.673483 3.5666664
-22.979137 -0.50281966 30.630447 4.4833331
-22.604368 -0.53586376 30.584816 3.6363637
-22.193811 -0.49802095 30.681799 4.090909
-21.738861 -0.51387626 30.702785 4.1999998
-21.385363 -0.53878087 30.672194 5.7142859
-21.026993 -0.62354279 30.496534 6
-20.611645 -0.59512907 30.649178 6.090909
-20.143661 -0.56891972 30.657557 6.5
-19.803587 -0.54817569 30.590067 6
-19.444706 -0.61926317 30.587168 5.8000002
-19.045923 -0.55963671 30.582935 6.2857141
-18.513409 -0.58541518 30.581234 6.0999999
-18.245756 -0.6485703 30.571966 6
-17.362997 -0.55425727 30.448265 6
-16.643911 -0.54562473 30.55674 6.3333335
-16.070759 -0.60736454 30.764624 7
-13.679344 -0.53915584 30.653818 7
-10.891217 -0.75424445 30.497425 6
-10.582252 -0.67105317 30.484468 5.2310939
-10.260126 -0.67869663 30.494547 4.5714288
-9.6659317 -0.75312847 30.582983 5.3333335
-9.329874 -0.71221375 30.598206 5.25
-8.9508219 -0.77790385 30.5846 5
-8.6316824 -0.78145969 30.523106 4.8888888
-8.2112713 -0.77693081 30.545231 4.5999999
-7.7964196 -0.78044611 30.602295 4.3055553
-7.482769 -0.77935684 30.687347 4.5
-7.0896969 -0.78046495 30.640406 5.6666665
-6.6113157 -0.78043038 30.605974 3.5714285
-6.2174439 -0.77351058 30.614122 3.3333333
-5.8385816 -0.78420419 30.574343 2.9333334
-5.3987055 -0.76825035 30.545321 3.3333333
-5.0064201 -0.78238976 30.57604 1.9285715
-4.5934796 -0.69306803 30.693605 3.833333
-4.1758394 -0.75792408 30.644238 2.9230769
-3.8334475 -0.77043885 30.594553 2.1875
-3.428261 -0.75724274 30.595215 2.090909
-2.9283528 -0.71511441 30.60376 3.5
-2.5350108 -0.50037217 30.621881 4.909091
-2.2958984 -0.43042144 30.635544 4.6666665
-1.9566538 -0.41987818 30.644669 6
-37.702217 -0.03783467 30.50362 7
-37.46093 -0.053701032 30.659655 6.3676362
-37.057266 -0.072375447 30.644737 5.2222223
-36.579048 -0.088877395 30.646122 5.9000001
-36.169472 -0.11647396 30.635101 4.7692308
-35.753819 -0.17298838 30.545305 4.039216
-35.390114 -0.20264633 30.621609 4.6666665
-35.02861 -0.26340643 30.563652 3.9019604
-34.613411 -0.27837306 30.605198 3.9285715
-34.162575 -0.26670644 30.63068 4.75
-33.791565 -0.3011274 30.633675 4.5
-33.398491 -0.31329215 30.639801 3.625
-32.966347 -0.31461513 30.606707 2.6153846
-32.631313 -0.3217459 30.596504 4
-32.174091 -0.35269138 30.603451 3.3333333
-31.821703 -0.37055546 30.600447 1.8461539
-31.457022 -0.37000325 30.541729 3.8
-31.051079 -0.35975698 30.68931 5
-30.581276 -0.37270659 30.744452 1
-30.298035 -0.35951555 30.497631 3
-29.939188 -0.39040893 30.456509 1
-29.577101 -0.3763563 30.586744 7
-28.922947 -0.312828 30.780701 6
-28.026184 -0.3443895 30.731037 5
-27.116871 -0.35680225 30.425331 6
-26.201973 -0.36411676 30.759655 7
-24.266523 -0.36463541 30.616686 6
-22.890656 -0.12913571 30.610783 5.3824916
-22.749887 -0.094436765 30.604284 7
-22.106462 -0.37812302 30.798149 5
-21.6362 -0.38121146 30.486898 5
-21.454382 -0.3675617 30.781811 6.5
-21.079407 -0.34686184 30.730179 6.6666665
-20.605574 -0.38839734 30.763397 7
-20.179359 -0.34371147 30.757305 7
-18.28796 -0.22177257 30.589394 7.7334223
-15.230603 -0.10825776 30.561962 5
-14.522867 -0.22117397 30.564522 7
-10.648831 -0.28855169 30.44516 8.1245003
-10.355356 -0.24197583 30.411362 7
-9.6266022 -0.25403121 30.430273 6.5
-9.4055862 -0.19775309 30.674936 6.7222219
-4.5876961 -0.14268243 30.619167 6.3476191
-2.1689961 -0.37011638 30.530107 5.6666665
-1.7084622 -0.27822745 30.584944 5.6666665
-1.4356374 -0.22470726 30.574776 5.8333335
-0.84599751 -0.10197879 30.582754 6
-0.58053339 -0.050597426 30.663946 6.1428571
-0.33790302 -0.015371628 30.637806 7
4.0684404 -0.025272742 30.461712 7
4.4766016 -0.027964994 30.755634 7
5.0403171 -0.10046169 30.586922 8.333333
-38.040276 0.12727059 30.438824 9.0820007
-37.747318 0.20312454 30.518539 6.9052882
-37.483814 0.21401303 30.695179 6.7173567
-37.123573 0.10555641 30.551563 7
-24.86142 0.096292615 30.744278 8.1610003
-22.88176 0.23117648 30.597305 7.5526028
-22.75437 0.26416296 30.629311 7.4033747
-18.304522 0.20909767 30.557402 9.1311808
-17.96516 0.20430301 30.517433 6
-17.342806 0.055004429 30.737316 7
-14.528013 0.19557799 30.566641 7.8880558
-11.767718 0.091335416 30.705206 8.7471666
-11.563754 0.14422151 30.595818 10.137
-9.7475805 0.11505975 30.567705 8.375
-9.3819017 0.1443464 30.662144 8.5180998
-4.5799289 0.22942789 30.592339 8.5026312
-4.3065577 0.33350718 30.673927 9.0524998
-3.8916397 0.36798212 30.78764 9.0512505
-3.3369222 0.38397631 30.515728 9.0244999
-0.18795225 0.12783398 30.538788 5.4285712
0.19784337 0.17419083 30.490047 4.7777777
0.54420543 0.19997847 30.610733 4.5
0.98663521 0.15374006 30.679447 5
1.4424607 0.18686382 30.648077 4.3333335
1.7863029 0.19080448 30.675558 4.3333335
2.1970751 0.15107584 30.658062 5
2.6759949 0.12531616 30.561653 5.3333335
3.104852 0.26942995 30.655203 4.6666665
3.4465563 0.20267151 30.531273 4.3333335
3.8336825 0.21055548 30.530727 4.1999998
4.1476183 0.27600515 30.541422 7.6759758
4.5694647 0.27858752 30.620193 8.6047058
5.0185499 0.27681881 30.647524 8.2480183
47.23642 0.094700187 30.793652 9
-37.729294 0.61960554 30.505594 8.0411873
-37.470619 0.63890994 30.692467 8.0703049
-27.495789 0.42874438 30.663134 8.6254997
-24.983206 0.64239311 30.610687 9.1612501
-22.880814 0.60762912 30.620544 9.5496445
-22.776197 0.57859129 30.601702 9.0115547
-16.53076 0.63094771 30.535484 8.8661871
-9.7204704 0.50771964 30.770073 10.375
-9.354064 0.53622979 30.766779 10.5
-4.5930023 0.42362154 30.54796 10
-4.3703933 0.47629094 30.573526 9.0484991
-3.3651388 0.44054344 30.604643 9.0194998
-0.061340332 0.42430151 30.468979 6
3.1424925 0.40861955 30.72728 6
4.1469073 0.58409047 30.529171 7.7083054
4.5711846 0.55606639 30.548494 9.1702328
5.0333037 0.59814394 30.629465 8.4116144
47.099773 0.7165072 30.779161 11.0295
47.472279 0.54340607 30.754347 10.342834
-37.734634 1.0163275 30.497232 9.3020067
-37.458229 1.0223528 30.665733 9.2195063
-22.909971 1.0092518 30.651659 11.264813
-22.7528 0.96004224 30.591726 10.5429
-9.5412321 0.84570134 30.686808 12.0915
-4.5813761 1.0002381 30.562176 12.242102
-4.1036377 1.1615181 30.508938 11.263687
-3.727639 1.1320515 30.642405 12.29625
-3.3757808 1.1523385 30.706482 11.697667
-3.0367835 1.085808 30.588364 11.567812
4.1610594 0.99108046 30.523628 9.1137733
4.6276402 0.93045866 30.562365 9.9746361
5.0417538 0.97611827 30.627136 9.4433804
5.241549 0.89066917 30.756388 9
47.089859 1.0185409 30.689362 11.519375
47.350349 0.91408789 30.767384 11.204
-37.710705 1.3934956 30.497223 10.469668
-37.440361 1.4084837 30.649395 10.464489
-25.851105 1.244786 30.611141 12.1315
-22.950607 1.246736 30.619148 11.994732
-22.786818 1.2870442 30.688566 11.861167
-4.1983042 1.2819382 30.774292 10.008
-3.539788 1.2536018 30.510288 10.010625
4.1455364 1.396282 30.516291 10.321264
4.5915051 1.3819865 30.570709 10.90856
5.0182815 1.4015552 30.614182 10.38161
11.890986 1.5600755 30.450378 12.1475
47.079735 1.396848 30.716255 12.541
47.426792 1.3999603 30.752563 12.1132
47.653992 1.3144784 30.759678 12.57025
-37.707359 1.7423923 30.516045 11.438352
-37.433163 1.8069768 30.652121 11.610875
-37.177074 1.778133 30.725132 11
3.9392488 1.8186785 30.489326 11.049
4.12918 1.8113245 30.515028 11.233128
4.5748649 1.8212551 30.530706 11.203313
5.0336719 1.820231 30.604155 11.001391
46.754116 1.7313943 30.617647 14.1555
47.10183 1.7356281 30.65414 13.2291
47.39064 1.7957054 30.709127 13.397458
47.608215 1.6798536 30.783581 13.0285
-37.691563 2.1688144 30.480116 12.12779
-37.420609 2.2194488 30.641239 12.110465
3.9335489 2.3322809 30.49391 12.049
4.1402664 2.2299039 30.526094 11.960897
4.5838804 2.2191494 30.489361 12.038277
5.0393577 2.2015054 30.614759 11.703067
5.2249222 2.0834105 30.62664 10.1175
47.125427 2.1762402 30.666168 14.2332
47.431648 2.126312 30.7104 14.47595
47.738068 2.1591372 30.751638 14.603251
-37.678818 2.5720813 30.505911 12.146331
-37.419441 2.5746462 30.63945 12.926847
-37.068195 2.5345402 30.602543 12.005
3.545702 2.6675174 30.465778 13.0515
4.1668706 2.6058986 30.507751 12.842472
4.6319709 2.589901 30.477253 12.737538
5.0789189 2.6057611 30.599182 12.517
5.2264166 2.5905948 30.645926 11.8464
47.495754 2.4100957 30.674803 14
-37.662949 2.9939821 30.488379 13.740668
-37.41589 2.9898119 30.649097 13.074088
2.6230001 3.0981238 30.588743 13.606539
3.0656152 3.1301427 30.525942 15.057625
3.4975758 3.0389442 30.571615 13.587147
3.8656712 3.0192373 30.613417 13.777406
4.1629729 2.9308639 30.520157 13.80677
4.6451449 2.9397309 30.460745 14.096416
5.0893202 3.0198286 30.599258 13.466453
5.2642899 3.0353885 30.739855 13.054
-37.707615 3.3691158 30.468185 13.718059
-37.409733 3.3975964 30.630608 13.741419
-37.096794 3.3720093 30.544571 14.336667
2.6100421 3.357697 30.573956 13.051017
2.8922951 3.3591278 30.60008 11.598249
3.4487374 3.2930975 30.545349 15.071334
3.8911839 3.4034941 30.559425 14.690084
4.1428084 3.3043792 30.542608 15.00925
4.593884 3.4045212 30.649725 15.044625
5.0864801 3.3053043 30.591846 14.221975
-37.670441 3.7251723 30.477335 12.957666
-37.402584 3.7679336 30.637342 13.222764
2.5864778 3.6607285 30.614349 13.791308
3.0573943 3.7882712 30.460257 13.4255
4.3026657 3.8247025 30.419853 11.0005
-37.674274 4.0848613 30.4405 15.0327
-37.384476 4.1909771 30.649645 13.731256
-37.120193 4.2337351 30.490116 12.361126
2.7143917 4.2463708 30.558449 12.105
4.3335218 4.161705 30.459648 11.106251
-37.794739 4.4066763 30.439085 13
-37.343735 4.6062083 30.657095 13.547736
-37.096901 4.5513263 30.49893 14.415984
-36.431335 4.4613838 30.586735 11.0525
4.2914667 4.5632639 30.664148 12.1157
-37.313007 5.0204105 30.640514 12.952451
-37.136219 5.0280423 30.504353 12.631399
2.1564426 5.0909319 30.647303 12.12925
2.4942808 4.9389386 30.793533 12.011
4.3208332 4.9931378 30.490196 12.039499
-37.318264 5.3291306 30.579813 12.865085
-37.154861 5.2149749 30.446938 15.008
-18.425621 5.4589257 30.470856 15.118668
-17.700207 5.3044043 30.61924 15.145833
-14.904696 5.4002876 30.749504 12.899374
-14.719561 5.4620991 30.726364 12.297
2.6155128 5.3206782 30.473005 12.134
-37.250786 5.8945637 30.579887 13.584
-37.029499 5.9823885 30.454899 15.092751
-15.094478 5.8426023 30.513664 15.046
-14.265347 5.6376748 30.632912 15.1485
4.7291641 5.8312168 30.723269 13.1055
-37.323082 6.1469464 30.626522 14.690572
-37.193863 6.0579052 30.423563 15
3.0965099 6.2435689 30.598114 14.147166
3.3312445 6.0644908 30.526413 12.14475
-37.260551 6.7658687 30.654875 13.075168
-37.110512 6.6876078 30.433447 12.1605
-15.058756 6.7401862 30.474476 15.0825
-14.534644 6.6055517 30.569019 15.0595
2.9505115 6.5879431 30.610088 14.4593
-37.628139 6.8901443 30.774029 15.123
-37.269001 6.8669291 30.652081 12.0635
-37.375294 7.4086342 30.682245 15.158668
-37.41386 7.7531357 30.634594 15.0321
-37.05302 7.6496196 30.466198 15.16
-36.4842 11.038191 30.573208 12.174
-36.284874 11.164642 30.758827 12.1755
